ply
format ascii 1.0
element vertex 1464
property float x
property float y
property float z
end_header
119.397400 -231.977600 92.714100
-32.602600 -261.977600 128.714100
-10.602600 -117.977600 174.714100
151.397400 84.022400 254.714100
-4.602600 -51.977600 192.714100
57.397400 -69.977600 152.714100
189.397400 -287.977600 88.714100
175.397400 -173.977600 240.714100
99.397400 -267.977600 254.714100
-26.602600 -35.977600 162.714100
51.397400 76.022400 104.714100
-24.602600 -137.977600 238.714100
43.397400 -191.977600 170.714100
127.397400 -31.977600 154.714100
11.397400 -117.977600 168.714100
-20.602600 -281.977600 226.714100
59.397400 -237.977600 170.714100
145.397400 -155.977600 234.714100
87.397400 0.022400 260.714100
41.397400 -51.977600 178.714100
43.397400 -221.977600 260.714100
51.397400 -197.977600 206.714100
71.397400 -147.977600 244.714100
71.397400 -149.977600 162.714100
-50.602600 -255.977600 190.714100
103.397400 -35.977600 226.714100
155.397400 -57.977600 112.714100
-8.602600 -207.977600 128.714100
-48.602600 -63.977600 126.714100
-48.602600 -35.977600 232.714100
-24.602600 24.022400 192.714100
-20.602600 74.022400 180.714100
147.397400 -41.977600 134.714100
115.397400 -81.977600 92.714100
139.397400 -127.977600 142.714100
39.397400 -287.977600 124.714100
73.397400 -287.977600 138.714100
89.397400 -77.977600 196.714100
77.397400 -135.977600 128.714100
191.397400 -287.977600 128.714100
39.397400 22.022400 224.714100
-34.602600 -149.977600 160.714100
115.397400 -203.977600 202.714100
21.397400 -281.977600 90.714100
-22.602600 14.022400 206.714100
31.397400 -205.977600 200.714100
157.397400 58.022400 188.714100
45.397400 -53.977600 188.714100
29.397400 62.022400 168.714100
209.397400 -277.977600 142.714100
177.397400 50.022400 168.714100
85.397400 -213.977600 144.714100
133.397400 -235.977600 212.714100
9.397400 -51.977600 150.714100
-32.602600 -247.977600 190.714100
19.397400 -147.977600 124.714100
183.397400 -95.977600 168.714100
-34.602600 -285.977600 144.714100
39.397400 -137.977600 228.714100
167.397400 80.022400 252.714100
141.397400 56.022400 248.714100
7.397400 50.022400 230.714100
205.397400 -135.977600 206.714100
-36.602600 -161.977600 162.714100
101.397400 -229.977600 152.714100
35.397400 -201.977600 154.714100
-18.602600 -275.977600 222.714100
5.397400 16.022400 146.714100
-30.602600 16.022400 118.714100
-20.602600 -51.977600 88.714100
-38.602600 20.022400 88.714100
179.397400 -185.977600 124.714100
187.397400 -227.977600 112.714100
11.397400 60.022400 108.714100
111.397400 70.022400 258.714100
181.397400 -83.977600 152.714100
113.397400 -171.977600 198.714100
33.397400 -171.977600 190.714100
51.397400 -113.977600 228.714100
165.397400 -263.977600 184.714100
111.397400 -29.977600 188.714100
5.397400 -39.977600 250.714100
37.397400 76.022400 232.714100
77.397400 38.022400 252.714100
-4.602600 -13.977600 184.714100
9.397400 74.022400 190.714100
37.397400 62.022400 250.714100
101.397400 -269.977600 210.714100
-22.602600 -189.977600 186.714100
99.397400 -9.977600 98.714100
203.397400 -97.977600 220.714100
161.397400 -69.977600 118.714100
-2.602600 -57.977600 156.714100
71.397400 28.022400 240.714100
-12.602600 -53.977600 248.714100
101.397400 -165.977600 206.714100
51.397400 -69.977600 254.714100
147.397400 -73.977600 152.714100
201.397400 -223.977600 222.714100
-38.602600 82.022400 106.714100
55.397400 62.022400 176.714100
59.397400 -145.977600 234.714100
37.397400 26.022400 114.714100
53.397400 -221.977600 248.714100
101.397400 -271.977600 118.714100
109.397400 -105.977600 110.714100
167.397400 50.022400 132.714100
103.397400 -157.977600 188.714100
119.397400 -31.977600 238.714100
107.397400 -49.977600 160.714100
157.397400 -223.977600 146.714100
-18.602600 -147.977600 166.714100
-42.602600 -173.977600 154.714100
125.397400 -283.977600 146.714100
-16.602600 -263.977600 150.714100
103.397400 74.022400 136.714100
113.397400 40.022400 160.714100
53.397400 -211.977600 174.714100
-50.602600 -47.977600 128.714100
23.397400 -59.977600 136.714100
101.397400 -65.977600 160.714100
187.397400 -101.977600 246.714100
83.397400 -191.977600 142.714100
5.397400 -157.977600 220.714100
93.397400 -129.977600 120.714100
121.397400 -61.977600 136.714100
77.397400 -235.977600 200.714100
97.397400 -75.977600 124.714100
17.397400 -111.977600 190.714100
161.397400 -237.977600 250.714100
207.397400 -231.977600 138.714100
203.397400 -143.977600 196.714100
87.397400 -213.977600 234.714100
-24.602600 -37.977600 146.714100
71.397400 -29.977600 162.714100
141.397400 -281.977600 236.714100
183.397400 -29.977600 136.714100
211.397400 -145.977600 94.714100
133.397400 -121.977600 248.714100
185.397400 -145.977600 178.714100
-0.602600 -187.977600 198.714100
131.397400 -203.977600 92.714100
61.397400 -253.977600 120.714100
185.397400 -45.977600 102.714100
141.397400 76.022400 180.714100
-6.602600 80.022400 184.714100
-50.602600 74.022400 96.714100
109.397400 -165.977600 118.714100
49.397400 -75.977600 172.714100
51.397400 40.022400 226.714100
31.397400 -103.977600 164.714100
-26.602600 30.022400 176.714100
149.397400 -167.977600 212.714100
15.397400 -239.977600 108.714100
177.397400 -145.977600 258.714100
103.397400 30.022400 174.714100
131.397400 -83.977600 146.714100
-18.602600 -127.977600 184.714100
43.397400 58.022400 164.714100
-38.602600 -17.977600 166.714100
29.397400 72.022400 238.714100
121.397400 -147.977600 98.714100
-32.602600 -33.977600 214.714100
-0.602600 -199.977600 128.714100
141.397400 -163.977600 206.714100
133.397400 -281.977600 198.714100
95.397400 -133.977600 184.714100
183.397400 -11.977600 122.714100
51.397400 -49.977600 134.714100
165.397400 -89.977600 132.714100
15.397400 -89.977600 112.714100
117.397400 -27.977600 100.714100
21.397400 -227.977600 214.714100
-28.602600 48.022400 142.714100
-18.602600 -185.977600 118.714100
65.397400 -289.977600 248.714100
101.397400 -231.977600 164.714100
121.397400 -35.977600 206.714100
15.397400 -225.977600 188.714100
73.397400 -59.977600 190.714100
105.397400 -77.977600 192.714100
-24.602600 78.022400 230.714100
121.397400 -19.977600 232.714100
15.397400 62.022400 204.714100
45.397400 -15.977600 216.714100
109.397400 -219.977600 120.714100
107.397400 -225.977600 220.714100
91.397400 -73.977600 256.714100
169.397400 -193.977600 188.714100
203.397400 -55.977600 252.714100
37.397400 -61.977600 246.714100
5.397400 -13.977600 242.714100
7.397400 -245.977600 132.714100
87.397400 -143.977600 90.714100
63.397400 -161.977600 202.714100
85.397400 32.022400 260.714100
81.397400 -89.977600 172.714100
31.397400 -205.977600 198.714100
195.397400 -269.977600 148.714100
9.397400 -47.977600 92.714100
125.397400 -253.977600 138.714100
13.397400 -33.977600 124.714100
17.397400 -153.977600 250.714100
111.397400 -129.977600 220.714100
205.397400 -111.977600 96.714100
107.397400 -117.977600 162.714100
65.397400 -133.977600 98.714100
125.397400 54.022400 132.714100
115.397400 80.022400 110.714100
133.397400 -45.977600 160.714100
167.397400 -237.977600 254.714100
195.397400 -131.977600 156.714100
143.397400 -129.977600 114.714100
155.397400 2.022400 124.714100
165.397400 -13.977600 226.714100
-6.602600 74.022400 258.714100
55.397400 -55.977600 168.714100
11.397400 -65.977600 174.714100
183.397400 -125.977600 168.714100
35.397400 -81.977600 130.714100
167.397400 -169.977600 216.714100
99.397400 -67.977600 148.714100
69.397400 -187.977600 88.714100
27.397400 -223.977600 132.714100
61.397400 -189.977600 104.714100
187.397400 -187.977600 104.714100
93.397400 74.022400 184.714100
1.397400 -219.977600 106.714100
93.397400 -17.977600 142.714100
83.397400 -133.977600 146.714100
109.397400 -249.977600 256.714100
57.397400 -9.977600 132.714100
123.397400 18.022400 244.714100
83.397400 -229.977600 218.714100
37.397400 -23.977600 118.714100
-48.602600 -253.977600 184.714100
35.397400 60.022400 204.714100
141.397400 -209.977600 190.714100
11.397400 -35.977600 144.714100
-50.602600 26.022400 196.714100
-48.602600 -275.977600 178.714100
27.397400 -63.977600 128.714100
203.397400 -279.977600 258.714100
45.397400 18.022400 88.714100
211.397400 -109.977600 192.714100
121.397400 -105.977600 222.714100
195.397400 0.022400 122.714100
27.397400 -25.977600 92.714100
-20.602600 -137.977600 170.714100
79.397400 72.022400 246.714100
129.397400 -119.977600 256.714100
49.397400 -255.977600 220.714100
39.397400 22.022400 144.714100
207.397400 74.022400 252.714100
45.397400 -87.977600 116.714100
205.397400 28.022400 236.714100
-26.602600 -263.977600 162.714100
15.397400 -99.977600 238.714100
87.397400 -151.977600 182.714100
95.397400 20.022400 112.714100
-44.602600 -179.977600 146.714100
107.397400 0.022400 104.714100
9.397400 -231.977600 212.714100
177.397400 -129.977600 244.714100
159.397400 -89.977600 234.714100
123.397400 10.022400 258.714100
213.397400 -243.977600 96.714100
203.397400 -79.977600 216.714100
145.397400 -55.977600 148.714100
159.397400 -83.977600 248.714100
143.397400 -263.977600 248.714100
-18.602600 -219.977600 136.714100
159.397400 -3.977600 170.714100
203.397400 -211.977600 244.714100
131.397400 84.022400 132.714100
-50.602600 -7.977600 172.714100
63.397400 32.022400 126.714100
165.397400 -233.977600 170.714100
59.397400 -131.977600 236.714100
83.397400 -229.977600 214.714100
-14.602600 -153.977600 104.714100
185.397400 -105.977600 168.714100
1.397400 4.022400 96.714100
173.397400 48.022400 248.714100
197.397400 -17.977600 196.714100
-28.602600 -191.977600 120.714100
81.397400 -253.977600 180.714100
89.397400 -219.977600 162.714100
-16.602600 -93.977600 140.714100
105.397400 -155.977600 120.714100
-14.602600 -185.977600 188.714100
193.397400 -61.977600 178.714100
61.397400 28.022400 122.714100
95.397400 -45.977600 256.714100
159.397400 8.022400 176.714100
141.397400 -77.977600 206.714100
185.397400 -75.977600 136.714100
127.397400 -163.977600 186.714100
179.397400 -73.977600 122.714100
13.397400 -199.977600 198.714100
169.397400 82.022400 258.714100
-16.602600 -7.977600 164.714100
81.397400 -125.977600 208.714100
149.397400 -161.977600 92.714100
175.397400 80.022400 206.714100
19.397400 78.022400 200.714100
11.397400 54.022400 240.714100
73.397400 -27.977600 168.714100
173.397400 -33.977600 224.714100
115.397400 32.022400 96.714100
9.397400 -81.977600 178.714100
-40.602600 -21.977600 166.714100
9.397400 74.022400 182.714100
55.397400 -59.977600 154.714100
167.397400 -77.977600 184.714100
-4.602600 18.022400 248.714100
123.397400 -155.977600 114.714100
205.397400 -247.977600 260.714100
161.397400 -75.977600 212.714100
65.397400 -209.977600 186.714100
-20.602600 -179.977600 226.714100
213.397400 -31.977600 142.714100
-24.602600 -267.977600 158.714100
191.397400 76.022400 210.714100
89.397400 -101.977600 228.714100
75.397400 62.022400 98.714100
47.397400 -59.977600 170.714100
189.397400 -21.977600 256.714100
19.397400 -217.977600 226.714100
193.397400 -273.977600 112.714100
-12.602600 -155.977600 112.714100
167.397400 -191.977600 242.714100
207.397400 -229.977600 148.714100
175.397400 -199.977600 258.714100
79.397400 -67.977600 118.714100
187.397400 -251.977600 160.714100
51.397400 -107.977600 212.714100
-34.602600 34.022400 206.714100
121.397400 -95.977600 234.714100
73.397400 -115.977600 260.714100
79.397400 -15.977600 98.714100
-42.602600 8.022400 186.714100
73.397400 -53.977600 132.714100
63.397400 46.022400 136.714100
137.397400 -251.977600 108.714100
91.397400 -263.977600 220.714100
193.397400 -241.977600 240.714100
31.397400 60.022400 166.714100
23.397400 -15.977600 106.714100
1.397400 -239.977600 246.714100
51.397400 -209.977600 96.714100
-18.602600 -27.977600 132.714100
155.397400 -197.977600 220.714100
171.397400 58.022400 202.714100
85.397400 12.022400 96.714100
185.397400 -117.977600 132.714100
29.397400 -11.977600 170.714100
73.397400 -51.977600 222.714100
57.397400 -249.977600 148.714100
-16.602600 62.022400 222.714100
-22.602600 -135.977600 250.714100
179.397400 -123.977600 230.714100
79.397400 -59.977600 224.714100
1.397400 -117.977600 234.714100
147.397400 -125.977600 140.714100
85.397400 56.022400 230.714100
91.397400 -77.977600 170.714100
21.397400 -95.977600 242.714100
107.397400 -135.977600 260.714100
61.397400 -89.977600 234.714100
17.397400 -151.977600 230.714100
167.397400 -73.977600 126.714100
99.397400 -137.977600 216.714100
-38.602600 -1.977600 204.714100
-20.602600 84.022400 108.714100
3.397400 32.022400 200.714100
23.397400 -253.977600 132.714100
-42.602600 76.022400 228.714100
149.397400 76.022400 154.714100
-50.602600 84.022400 192.714100
113.397400 18.022400 148.714100
103.397400 18.022400 160.714100
-44.602600 42.022400 178.714100
89.397400 -37.977600 102.714100
-28.602600 -135.977600 198.714100
85.397400 62.022400 246.714100
9.397400 -135.977600 98.714100
63.397400 -173.977600 122.714100
163.397400 -195.977600 128.714100
9.397400 -111.977600 140.714100
69.397400 -235.977600 116.714100
109.397400 -63.977600 124.714100
-18.602600 -147.977600 110.714100
41.397400 -263.977600 208.714100
185.397400 80.022400 182.714100
155.397400 -121.977600 218.714100
79.397400 26.022400 188.714100
15.397400 -271.977600 248.714100
205.397400 60.022400 142.714100
211.397400 -163.977600 202.714100
153.397400 -81.977600 160.714100
-12.602600 12.022400 104.714100
107.397400 -51.977600 248.714100
201.397400 -205.977600 228.714100
-16.602600 42.022400 252.714100
75.397400 -187.977600 142.714100
-12.602600 -153.977600 170.714100
-26.602600 -1.977600 234.714100
187.397400 -81.977600 226.714100
173.397400 -5.977600 204.714100
109.397400 -137.977600 88.714100
7.397400 -35.977600 148.714100
-24.602600 -81.977600 236.714100
119.397400 -167.977600 114.714100
185.397400 -135.977600 214.714100
-38.602600 -181.977600 174.714100
69.397400 -123.977600 90.714100
185.397400 -147.977600 172.714100
117.397400 -69.977600 142.714100
-32.602600 34.022400 206.714100
111.397400 -93.977600 96.714100
-8.602600 -279.977600 112.714100
55.397400 20.022400 108.714100
35.397400 56.022400 184.714100
149.397400 -223.977600 160.714100
113.397400 68.022400 260.714100
61.397400 4.022400 94.714100
-48.602600 -5.977600 256.714100
119.397400 -27.977600 178.714100
67.397400 -101.977600 218.714100
33.397400 -215.977600 128.714100
107.397400 -157.977600 254.714100
131.397400 -101.977600 166.714100
177.397400 -55.977600 204.714100
139.397400 18.022400 180.714100
135.397400 46.022400 244.714100
119.397400 -93.977600 146.714100
65.397400 -285.977600 224.714100
71.397400 -107.977600 96.714100
169.397400 -273.977600 142.714100
51.397400 8.022400 192.714100
93.397400 -105.977600 216.714100
137.397400 70.022400 164.714100
197.397400 -139.977600 170.714100
151.397400 -55.977600 234.714100
171.397400 -211.977600 218.714100
49.397400 -181.977600 128.714100
131.397400 66.022400 226.714100
7.397400 66.022400 232.714100
87.397400 64.022400 180.714100
169.397400 -255.977600 112.714100
107.397400 -121.977600 92.714100
137.397400 -155.977600 160.714100
111.397400 -53.977600 108.714100
7.397400 22.022400 182.714100
209.397400 -241.977600 236.714100
-4.602600 -115.977600 224.714100
-50.602600 76.022400 216.714100
-34.602600 22.022400 188.714100
41.397400 -211.977600 190.714100
157.397400 -263.977600 110.714100
-16.602600 -185.977600 232.714100
-48.602600 -169.977600 152.714100
85.397400 24.022400 150.714100
17.397400 -247.977600 232.714100
193.397400 0.022400 246.714100
-6.602600 -117.977600 226.714100
-24.602600 -195.977600 138.714100
95.397400 -221.977600 234.714100
201.397400 -73.977600 216.714100
7.397400 68.022400 198.714100
181.397400 -215.977600 94.714100
27.397400 -225.977600 218.714100
1.397400 -117.977600 190.714100
-34.602600 -67.977600 100.714100
179.397400 -147.977600 232.714100
175.397400 -19.977600 158.714100
191.397400 -5.977600 152.714100
19.397400 -227.977600 226.714100
63.397400 48.022400 168.714100
105.397400 -37.977600 136.714100
53.397400 -65.977600 130.714100
175.397400 -47.977600 210.714100
41.397400 -77.977600 224.714100
189.397400 -159.977600 216.714100
61.397400 -157.977600 138.714100
191.397400 -119.977600 246.714100
57.397400 -161.977600 136.714100
35.397400 62.022400 240.714100
83.397400 -153.977600 136.714100
117.397400 52.022400 260.714100
-8.602600 74.022400 246.714100
143.397400 -163.977600 176.714100
147.397400 8.022400 180.714100
95.397400 -197.977600 128.714100
-12.602600 -249.977600 160.714100
-6.602600 44.022400 220.714100
103.397400 -281.977600 164.714100
195.397400 -207.977600 252.714100
73.397400 -227.977600 200.714100
61.397400 -61.977600 198.714100
153.397400 -39.977600 240.714100
87.397400 -191.977600 134.714100
131.397400 42.022400 88.714100
-30.602600 -245.977600 248.714100
89.397400 -31.977600 230.714100
197.397400 -245.977600 210.714100
-50.602600 -289.977600 198.714100
71.397400 -197.977600 236.714100
83.397400 -71.977600 94.714100
167.397400 66.022400 138.714100
39.397400 -65.977600 166.714100
-14.602600 -139.977600 162.714100
73.397400 -247.977600 208.714100
21.397400 -91.977600 256.714100
37.397400 -95.977600 210.714100
155.397400 -93.977600 114.714100
181.397400 -203.977600 200.714100
153.397400 30.022400 156.714100
47.397400 -89.977600 194.714100
59.397400 -105.977600 138.714100
35.397400 -33.977600 236.714100
111.397400 -17.977600 258.714100
187.397400 8.022400 232.714100
-8.602600 -61.977600 168.714100
-24.602600 2.022400 222.714100
113.397400 -289.977600 196.714100
157.397400 -21.977600 122.714100
13.397400 -211.977600 260.714100
-40.602600 -109.977600 168.714100
209.397400 82.022400 220.714100
115.397400 -71.977600 250.714100
105.397400 -43.977600 234.714100
-34.602600 -127.977600 172.714100
117.397400 -157.977600 218.714100
199.397400 -159.977600 186.714100
107.397400 -249.977600 242.714100
193.397400 -153.977600 152.714100
99.397400 -5.977600 158.714100
35.397400 60.022400 172.714100
103.397400 -31.977600 128.714100
19.397400 -83.977600 198.714100
187.397400 -241.977600 174.714100
213.397400 -69.977600 146.714100
37.397400 -109.977600 212.714100
147.397400 26.022400 92.714100
-46.602600 70.022400 258.714100
21.397400 -231.977600 242.714100
139.397400 -285.977600 222.714100
149.397400 -287.977600 108.714100
195.397400 80.022400 162.714100
11.397400 -143.977600 240.714100
35.397400 -177.977600 88.714100
67.397400 50.022400 226.714100
87.397400 -81.977600 200.714100
91.397400 38.022400 178.714100
139.397400 -205.977600 210.714100
85.397400 -11.977600 260.714100
121.397400 -69.977600 142.714100
105.397400 -125.977600 144.714100
45.397400 72.022400 206.714100
131.397400 -163.977600 184.714100
-4.602600 -271.977600 194.714100
143.397400 -227.977600 184.714100
73.397400 -165.977600 156.714100
7.397400 18.022400 210.714100
47.397400 -183.977600 134.714100
-36.602600 -85.977600 248.714100
123.397400 82.022400 112.714100
155.397400 44.022400 260.714100
205.397400 62.022400 196.714100
175.397400 -277.977600 90.714100
19.397400 -47.977600 146.714100
49.397400 74.022400 204.714100
21.397400 46.022400 260.714100
187.397400 -61.977600 220.714100
49.397400 -37.977600 124.714100
-8.602600 22.022400 232.714100
145.397400 -205.977600 174.714100
-24.602600 -267.977600 156.714100
-16.602600 -119.977600 216.714100
-18.602600 -33.977600 176.714100
-26.602600 -261.977600 158.714100
57.397400 -31.977600 250.714100
145.397400 -9.977600 104.714100
121.397400 -67.977600 234.714100
139.397400 -153.977600 234.714100
189.397400 -119.977600 158.714100
-2.602600 -103.977600 118.714100
209.397400 -139.977600 206.714100
97.397400 -73.977600 90.714100
65.397400 -97.977600 116.714100
3.397400 78.022400 202.714100
121.397400 -247.977600 230.714100
33.397400 -85.977600 252.714100
-20.602600 -289.977600 114.714100
165.397400 -217.977600 134.714100
169.397400 52.022400 242.714100
15.397400 -205.977600 158.714100
147.397400 -169.977600 220.714100
131.397400 10.022400 260.714100
-46.602600 66.022400 116.714100
211.397400 36.022400 254.714100
-20.602600 32.022400 252.714100
51.397400 -287.977600 180.714100
61.397400 -279.977600 166.714100
-24.602600 6.022400 168.714100
3.397400 -279.977600 140.714100
51.397400 -211.977600 222.714100
-20.602600 -199.977600 172.714100
51.397400 -167.977600 230.714100
191.397400 -245.977600 250.714100
187.397400 -159.977600 178.714100
101.397400 -43.977600 148.714100
-2.602600 -161.977600 122.714100
-20.602600 74.022400 222.714100
31.397400 -107.977600 162.714100
207.397400 -97.977600 210.714100
143.397400 -181.977600 234.714100
-16.602600 -263.977600 96.714100
119.397400 -123.977600 244.714100
49.397400 -29.977600 216.714100
21.397400 8.022400 102.714100
1.397400 -131.977600 248.714100
147.397400 -197.977600 154.714100
-32.602600 38.022400 250.714100
-0.602600 -261.977600 146.714100
171.397400 -237.977600 96.714100
59.397400 0.022400 158.714100
-22.602600 -69.977600 142.714100
179.397400 -21.977600 126.714100
167.397400 -207.977600 146.714100
181.397400 -281.977600 194.714100
195.397400 -109.977600 230.714100
151.397400 -139.977600 134.714100
109.397400 4.022400 180.714100
29.397400 -33.977600 172.714100
149.397400 -95.977600 210.714100
37.397400 -99.977600 202.714100
141.397400 66.022400 140.714100
45.397400 -11.977600 218.714100
29.397400 -105.977600 144.714100
135.397400 -157.977600 190.714100
105.397400 -17.977600 112.714100
87.397400 -77.977600 158.714100
125.397400 -39.977600 142.714100
155.397400 -35.977600 104.714100
55.397400 -3.977600 98.714100
43.397400 -189.977600 162.714100
171.397400 -25.977600 188.714100
95.397400 68.022400 146.714100
167.397400 -163.977600 218.714100
79.397400 -187.977600 124.714100
61.397400 -139.977600 180.714100
201.397400 -267.977600 90.714100
43.397400 -109.977600 174.714100
51.397400 -231.977600 94.714100
71.397400 -41.977600 228.714100
41.397400 -187.977600 130.714100
117.397400 -27.977600 234.714100
161.397400 -67.977600 246.714100
61.397400 14.022400 186.714100
191.397400 -171.977600 88.714100
169.397400 -143.977600 248.714100
99.397400 -55.977600 206.714100
203.397400 -49.977600 100.714100
-8.602600 -57.977600 102.714100
-40.602600 -67.977600 198.714100
-48.602600 -85.977600 120.714100
165.397400 -141.977600 132.714100
183.397400 84.022400 180.714100
-26.602600 -287.977600 106.714100
87.397400 66.022400 174.714100
93.397400 -21.977600 228.714100
97.397400 -103.977600 178.714100
183.397400 -85.977600 194.714100
17.397400 -93.977600 234.714100
69.397400 20.022400 192.714100
203.397400 -127.977600 128.714100
85.397400 -125.977600 180.714100
83.397400 -239.977600 254.714100
167.397400 -143.977600 200.714100
93.397400 -185.977600 198.714100
205.397400 40.022400 112.714100
121.397400 54.022400 244.714100
59.397400 -283.977600 174.714100
131.397400 -171.977600 186.714100
41.397400 -33.977600 172.714100
-12.602600 -175.977600 220.714100
-38.602600 -135.977600 230.714100
75.397400 -167.977600 98.714100
153.397400 38.022400 248.714100
205.397400 -233.977600 146.714100
197.397400 -61.977600 116.714100
141.397400 -65.977600 248.714100
-18.602600 -1.977600 206.714100
99.397400 -111.977600 182.714100
-34.602600 -217.977600 102.714100
-8.602600 -135.977600 188.714100
133.397400 -81.977600 160.714100
189.397400 -223.977600 88.714100
-2.602600 -237.977600 92.714100
-38.602600 28.022400 124.714100
105.397400 84.022400 128.714100
-20.602600 14.022400 148.714100
199.397400 -259.977600 148.714100
151.397400 -11.977600 152.714100
211.397400 -87.977600 180.714100
-18.602600 40.022400 228.714100
205.397400 30.022400 246.714100
-6.602600 6.022400 184.714100
205.397400 -59.977600 170.714100
107.397400 -109.977600 128.714100
113.397400 -239.977600 110.714100
29.397400 70.022400 194.714100
81.397400 -269.977600 88.714100
-20.602600 -279.977600 108.714100
163.397400 -103.977600 200.714100
109.397400 -81.977600 132.714100
-0.602600 12.022400 256.714100
191.397400 -241.977600 236.714100
67.397400 -269.977600 138.714100
-6.602600 10.022400 258.714100
109.397400 -197.977600 256.714100
169.397400 4.022400 208.714100
-10.602600 -215.977600 114.714100
169.397400 38.022400 94.714100
-46.602600 -95.977600 234.714100
213.397400 52.022400 200.714100
79.397400 -89.977600 220.714100
173.397400 66.022400 232.714100
157.397400 -155.977600 200.714100
59.397400 -9.977600 172.714100
85.397400 -59.977600 120.714100
147.397400 -49.977600 196.714100
207.397400 -155.977600 236.714100
173.397400 -187.977600 182.714100
191.397400 50.022400 140.714100
85.397400 -63.977600 178.714100
59.397400 -159.977600 142.714100
-12.602600 44.022400 174.714100
165.397400 -227.977600 132.714100
93.397400 20.022400 166.714100
213.397400 64.022400 194.714100
179.397400 -65.977600 236.714100
173.397400 -277.977600 210.714100
67.397400 -141.977600 240.714100
67.397400 -61.977600 174.714100
-4.602600 -197.977600 236.714100
209.397400 -231.977600 136.714100
9.397400 -283.977600 108.714100
89.397400 -81.977600 186.714100
-14.602600 -237.977600 124.714100
31.397400 -177.977600 154.714100
33.397400 -155.977600 198.714100
121.397400 82.022400 152.714100
47.397400 -107.977600 176.714100
21.397400 -179.977600 120.714100
39.397400 -265.977600 126.714100
-14.602600 8.022400 212.714100
111.397400 -231.977600 240.714100
3.397400 -161.977600 194.714100
133.397400 -123.977600 162.714100
131.397400 -211.977600 246.714100
-2.602600 -165.977600 190.714100
33.397400 -271.977600 152.714100
127.397400 -65.977600 96.714100
137.397400 -109.977600 136.714100
-20.602600 -269.977600 172.714100
163.397400 -289.977600 162.714100
-16.602600 -279.977600 122.714100
141.397400 -45.977600 94.714100
169.397400 -169.977600 258.714100
29.397400 24.022400 250.714100
11.397400 -7.977600 192.714100
87.397400 -203.977600 194.714100
37.397400 -273.977600 258.714100
207.397400 -239.977600 96.714100
47.397400 -55.977600 162.714100
195.397400 -71.977600 180.714100
-28.602600 -37.977600 102.714100
37.397400 -109.977600 96.714100
-0.602600 22.022400 234.714100
73.397400 78.022400 120.714100
-22.602600 -95.977600 136.714100
-32.602600 -43.977600 178.714100
-22.602600 -175.977600 176.714100
31.397400 -89.977600 192.714100
67.397400 -127.977600 258.714100
51.397400 -159.977600 96.714100
179.397400 50.022400 196.714100
211.397400 -231.977600 104.714100
49.397400 -173.977600 150.714100
-16.602600 -63.977600 216.714100
171.397400 -59.977600 186.714100
3.397400 -181.977600 232.714100
141.397400 -217.977600 198.714100
15.397400 -169.977600 206.714100
63.397400 -267.977600 188.714100
141.397400 78.022400 102.714100
51.397400 -191.977600 132.714100
65.397400 -279.977600 196.714100
113.397400 38.022400 244.714100
153.397400 -85.977600 186.714100
29.397400 82.022400 206.714100
159.397400 -245.977600 226.714100
23.397400 -91.977600 102.714100
139.397400 -157.977600 252.714100
-36.602600 -65.977600 220.714100
95.397400 -157.977600 94.714100
125.397400 -265.977600 114.714100
171.397400 -157.977600 248.714100
-2.602600 54.022400 130.714100
19.397400 4.022400 168.714100
123.397400 -203.977600 92.714100
33.397400 26.022400 118.714100
211.397400 -277.977600 202.714100
51.397400 -83.977600 106.714100
145.397400 -257.977600 104.714100
-32.602600 78.022400 258.714100
189.397400 58.022400 160.714100
-32.602600 20.022400 108.714100
173.397400 -157.977600 154.714100
33.397400 76.022400 160.714100
57.397400 -35.977600 124.714100
173.397400 -73.977600 114.714100
141.397400 -219.977600 152.714100
157.397400 -269.977600 230.714100
11.397400 -163.977600 226.714100
137.397400 -23.977600 162.714100
-24.602600 -257.977600 260.714100
157.397400 -173.977600 160.714100
-32.602600 -51.977600 196.714100
73.397400 -173.977600 186.714100
57.397400 -3.977600 240.714100
71.397400 74.022400 148.714100
73.397400 32.022400 234.714100
-34.602600 -181.977600 166.714100
157.397400 -183.977600 188.714100
197.397400 -193.977600 224.714100
57.397400 -259.977600 154.714100
43.397400 -161.977600 126.714100
99.397400 -1.977600 148.714100
135.397400 -99.977600 184.714100
-30.602600 66.022400 214.714100
185.397400 70.022400 160.714100
135.397400 -47.977600 246.714100
173.397400 -19.977600 260.714100
15.397400 -27.977600 132.714100
13.397400 60.022400 228.714100
65.397400 82.022400 140.714100
-6.602600 50.022400 206.714100
163.397400 -91.977600 182.714100
147.397400 10.022400 256.714100
71.397400 -31.977600 178.714100
83.397400 -215.977600 132.714100
-16.602600 -13.977600 188.714100
107.397400 -71.977600 254.714100
145.397400 -209.977600 98.714100
179.397400 -171.977600 152.714100
79.397400 -73.977600 114.714100
165.397400 -235.977600 232.714100
163.397400 -1.977600 170.714100
117.397400 -219.977600 190.714100
75.397400 -129.977600 116.714100
-34.602600 -23.977600 172.714100
51.397400 -77.977600 216.714100
-12.602600 -171.977600 198.714100
185.397400 -71.977600 124.714100
15.397400 -155.977600 144.714100
127.397400 -237.977600 130.714100
-6.602600 -93.977600 190.714100
183.397400 24.022400 166.714100
181.397400 -253.977600 104.714100
-48.602600 -261.977600 234.714100
175.397400 -3.977600 112.714100
-6.602600 -275.977600 166.714100
113.397400 40.022400 134.714100
17.397400 -253.977600 260.714100
169.397400 -205.977600 156.714100
-10.602600 -57.977600 214.714100
77.397400 -51.977600 114.714100
65.397400 -225.977600 198.714100
67.397400 -155.977600 140.714100
-36.602600 -241.977600 202.714100
193.397400 -259.977600 154.714100
-50.602600 6.022400 226.714100
165.397400 -39.977600 246.714100
133.397400 -217.977600 104.714100
-48.602600 -207.977600 118.714100
209.397400 -123.977600 112.714100
193.397400 -143.977600 94.714100
211.397400 -161.977600 120.714100
5.397400 12.022400 236.714100
131.397400 -13.977600 98.714100
179.397400 -275.977600 120.714100
23.397400 -109.977600 260.714100
41.397400 -19.977600 138.714100
185.397400 -277.977600 260.714100
63.397400 -251.977600 224.714100
91.397400 -221.977600 202.714100
-40.602600 -235.977600 174.714100
51.397400 -77.977600 238.714100
41.397400 -63.977600 230.714100
199.397400 -229.977600 168.714100
3.397400 -189.977600 182.714100
195.397400 -53.977600 252.714100
-32.602600 70.022400 126.714100
-40.602600 -3.977600 178.714100
127.397400 -33.977600 96.714100
67.397400 80.022400 120.714100
17.397400 -257.977600 138.714100
163.397400 -71.977600 254.714100
27.397400 -111.977600 150.714100
-30.602600 -193.977600 106.714100
41.397400 -231.977600 210.714100
-6.602600 46.022400 252.714100
131.397400 24.022400 212.714100
127.397400 -257.977600 200.714100
-44.602600 -119.977600 132.714100
-48.602600 -245.977600 198.714100
1.397400 -153.977600 90.714100
153.397400 82.022400 194.714100
-2.602600 -157.977600 226.714100
3.397400 54.022400 172.714100
81.397400 -23.977600 154.714100
189.397400 -179.977600 158.714100
83.397400 -285.977600 226.714100
121.397400 -121.977600 168.714100
205.397400 -37.977600 128.714100
81.397400 -79.977600 220.714100
45.397400 -135.977600 244.714100
-20.602600 -55.977600 168.714100
153.397400 -269.977600 242.714100
163.397400 -81.977600 126.714100
211.397400 36.022400 206.714100
23.397400 -269.977600 138.714100
-48.602600 -55.977600 116.714100
145.397400 -81.977600 228.714100
3.397400 -219.977600 140.714100
133.397400 -25.977600 242.714100
197.397400 12.022400 196.714100
31.397400 -229.977600 132.714100
101.397400 -183.977600 170.714100
123.397400 -179.977600 150.714100
73.397400 78.022400 246.714100
71.397400 -83.977600 244.714100
85.397400 -45.977600 246.714100
159.397400 -271.977600 196.714100
69.397400 -241.977600 142.714100
-40.602600 56.022400 104.714100
23.397400 -73.977600 244.714100
81.397400 -67.977600 178.714100
137.397400 52.022400 214.714100
135.397400 -153.977600 228.714100
1.397400 54.022400 176.714100
89.397400 2.022400 180.714100
-38.602600 -137.977600 156.714100
-4.602600 -35.977600 222.714100
-14.602600 -209.977600 238.714100
63.397400 -233.977600 230.714100
181.397400 -157.977600 154.714100
201.397400 -33.977600 224.714100
-44.602600 -209.977600 124.714100
41.397400 -171.977600 258.714100
9.397400 -63.977600 188.714100
91.397400 -137.977600 148.714100
1.397400 -201.977600 112.714100
49.397400 -19.977600 116.714100
143.397400 -67.977600 98.714100
-46.602600 -1.977600 152.714100
37.397400 -161.977600 90.714100
181.397400 -57.977600 240.714100
133.397400 -165.977600 202.714100
45.397400 -145.977600 116.714100
-22.602600 -245.977600 214.714100
-22.602600 -203.977600 94.714100
133.397400 -235.977600 102.714100
125.397400 -191.977600 220.714100
129.397400 -143.977600 172.714100
7.397400 -239.977600 156.714100
141.397400 -185.977600 102.714100
163.397400 62.022400 198.714100
183.397400 -145.977600 162.714100
207.397400 -257.977600 190.714100
213.397400 0.022400 158.714100
145.397400 -71.977600 142.714100
137.397400 2.022400 158.714100
-46.602600 -155.977600 184.714100
19.397400 -49.977600 148.714100
-48.602600 70.022400 92.714100
-2.602600 82.022400 108.714100
-16.602600 -209.977600 242.714100
195.397400 0.022400 140.714100
171.397400 -41.977600 106.714100
-18.602600 -13.977600 198.714100
-24.602600 -169.977600 252.714100
29.397400 -253.977600 174.714100
83.397400 52.022400 228.714100
-10.602600 -287.977600 240.714100
201.397400 -13.977600 166.714100
189.397400 -43.977600 146.714100
161.397400 62.022400 180.714100
-0.602600 -197.977600 176.714100
91.397400 -3.977600 202.714100
5.397400 -125.977600 106.714100
175.397400 -63.977600 88.714100
151.397400 -107.977600 176.714100
87.397400 -177.977600 150.714100
75.397400 -31.977600 216.714100
167.397400 -159.977600 200.714100
125.397400 -95.977600 136.714100
147.397400 -77.977600 208.714100
43.397400 -119.977600 186.714100
151.397400 50.022400 152.714100
-36.602600 -229.977600 142.714100
165.397400 80.022400 248.714100
213.397400 -127.977600 228.714100
183.397400 -97.977600 194.714100
93.397400 -107.977600 106.714100
77.397400 2.022400 252.714100
113.397400 48.022400 232.714100
37.397400 -93.977600 90.714100
55.397400 -107.977600 132.714100
-26.602600 -23.977600 254.714100
35.397400 -229.977600 190.714100
111.397400 50.022400 120.714100
29.397400 -219.977600 216.714100
127.397400 -141.977600 252.714100
29.397400 -93.977600 114.714100
169.397400 -169.977600 246.714100
-26.602600 -197.977600 180.714100
87.397400 -115.977600 228.714100
29.397400 -173.977600 120.714100
-6.602600 -59.977600 106.714100
167.397400 -59.977600 126.714100
65.397400 -87.977600 124.714100
109.397400 -173.977600 182.714100
171.397400 -111.977600 164.714100
99.397400 40.022400 232.714100
-38.602600 -143.977600 240.714100
105.397400 68.022400 194.714100
211.397400 -179.977600 250.714100
123.397400 -111.977600 154.714100
23.397400 -169.977600 234.714100
209.397400 60.022400 180.714100
177.397400 -37.977600 142.714100
-28.602600 -113.977600 184.714100
75.397400 -103.977600 244.714100
213.397400 16.022400 94.714100
-20.602600 -271.977600 132.714100
121.397400 -227.977600 258.714100
141.397400 24.022400 208.714100
-8.602600 58.022400 214.714100
109.397400 8.022400 188.714100
179.397400 48.022400 116.714100
121.397400 -133.977600 154.714100
143.397400 -71.977600 192.714100
27.397400 -83.977600 142.714100
-30.602600 -229.977600 226.714100
75.397400 -289.977600 206.714100
-16.602600 44.022400 252.714100
5.397400 -143.977600 118.714100
129.397400 -75.977600 210.714100
191.397400 -165.977600 134.714100
-0.602600 -195.977600 204.714100
199.397400 80.022400 150.714100
209.397400 -133.977600 198.714100
195.397400 -11.977600 200.714100
3.397400 -119.977600 144.714100
65.397400 -91.977600 154.714100
151.397400 -73.977600 246.714100
201.397400 32.022400 234.714100
-50.602600 -237.977600 134.714100
107.397400 -261.977600 194.714100
189.397400 -149.977600 174.714100
143.397400 -113.977600 218.714100
-46.602600 -115.977600 166.714100
73.397400 -151.977600 100.714100
187.397400 32.022400 222.714100
31.397400 -247.977600 126.714100
143.397400 40.022400 108.714100
-40.602600 18.022400 214.714100
99.397400 24.022400 160.714100
203.397400 -267.977600 136.714100
157.397400 -227.977600 198.714100
-0.602600 -21.977600 238.714100
45.397400 -199.977600 98.714100
-6.602600 24.022400 198.714100
53.397400 -153.977600 100.714100
57.397400 -179.977600 158.714100
17.397400 -205.977600 200.714100
153.397400 -19.977600 242.714100
-18.602600 12.022400 158.714100
117.397400 72.022400 110.714100
205.397400 64.022400 186.714100
79.397400 -211.977600 220.714100
213.397400 -61.977600 116.714100
205.397400 -251.977600 148.714100
93.397400 -141.977600 130.714100
75.397400 -193.977600 182.714100
147.397400 -229.977600 88.714100
135.397400 -269.977600 134.714100
59.397400 -233.977600 112.714100
33.397400 -89.977600 178.714100
139.397400 -185.977600 202.714100
-34.602600 -21.977600 254.714100
89.397400 -15.977600 242.714100
109.397400 68.022400 248.714100
197.397400 -253.977600 238.714100
81.397400 -121.977600 226.714100
77.397400 68.022400 112.714100
-22.602600 -171.977600 260.714100
169.397400 38.022400 232.714100
61.397400 -231.977600 224.714100
121.397400 -121.977600 224.714100
97.397400 -27.977600 158.714100
139.397400 78.022400 208.714100
65.397400 -159.977600 248.714100
163.397400 -135.977600 256.714100
-48.602600 14.022400 190.714100
159.397400 78.022400 202.714100
1.397400 -203.977600 162.714100
41.397400 -153.977600 256.714100
177.397400 -125.977600 244.714100
67.397400 -109.977600 126.714100
129.397400 66.022400 220.714100
109.397400 -107.977600 214.714100
-48.602600 -203.977600 112.714100
17.397400 -201.977600 244.714100
-8.602600 -93.977600 238.714100
93.397400 -193.977600 168.714100
-0.602600 -281.977600 116.714100
71.397400 -71.977600 126.714100
153.397400 -85.977600 260.714100
203.397400 52.022400 168.714100
97.397400 -171.977600 212.714100
-8.602600 30.022400 154.714100
159.397400 -211.977600 178.714100
5.397400 -153.977600 168.714100
141.397400 -41.977600 178.714100
111.397400 -213.977600 104.714100
59.397400 -185.977600 204.714100
15.397400 -179.977600 130.714100
-38.602600 24.022400 182.714100
-2.602600 -247.977600 238.714100
135.397400 -223.977600 260.714100
91.397400 -285.977600 236.714100
129.397400 58.022400 246.714100
135.397400 -37.977600 148.714100
153.397400 -113.977600 168.714100
151.397400 76.022400 216.714100
129.397400 -221.977600 120.714100
-46.602600 -147.977600 258.714100
191.397400 26.022400 150.714100
1.397400 -237.977600 184.714100
-48.602600 -261.977600 226.714100
163.397400 0.022400 174.714100
17.397400 -179.977600 192.714100
85.397400 -103.977600 250.714100
153.397400 -21.977600 198.714100
169.397400 6.022400 142.714100
69.397400 -77.977600 112.714100
-24.602600 -135.977600 124.714100
27.397400 -287.977600 120.714100
97.397400 -235.977600 90.714100
-32.602600 -49.977600 104.714100
123.397400 -47.977600 172.714100
-10.602600 -19.977600 174.714100
83.397400 76.022400 232.714100
139.397400 78.022400 260.714100
-32.602600 -271.977600 112.714100
119.397400 -255.977600 204.714100
-28.602600 -215.977600 94.714100
211.397400 -229.977600 130.714100
33.397400 -19.977600 114.714100
47.397400 -197.977600 148.714100
-2.602600 -17.977600 138.714100
77.397400 -75.977600 134.714100
131.397400 -249.977600 130.714100
-44.602600 -165.977600 150.714100
3.397400 -53.977600 188.714100
199.397400 -221.977600 130.714100
25.397400 18.022400 90.714100
87.397400 -107.977600 90.714100
73.397400 -145.977600 88.714100
213.397400 -181.977600 182.714100
-42.602600 -237.977600 196.714100
37.397400 -199.977600 196.714100
-32.602600 -65.977600 228.714100
71.397400 -45.977600 176.714100
67.397400 -117.977600 248.714100
83.397400 -75.977600 112.714100
-8.602600 54.022400 150.714100
-30.602600 0.022400 98.714100
-0.602600 -135.977600 160.714100
15.397400 -155.977600 134.714100
39.397400 34.022400 252.714100
-22.602600 -183.977600 254.714100
-36.602600 -127.977600 96.714100
169.397400 52.022400 212.714100
181.397400 -141.977600 132.714100
-46.602600 -251.977600 200.714100
127.397400 -271.977600 214.714100
85.397400 -261.977600 150.714100
153.397400 -31.977600 174.714100
9.397400 -209.977600 184.714100
-16.602600 -125.977600 138.714100
211.397400 -201.977600 174.714100
-40.602600 -153.977600 254.714100
-32.602600 -271.977600 120.714100
209.397400 -145.977600 128.714100
193.397400 -277.977600 208.714100
143.397400 50.022400 96.714100
137.397400 -79.977600 218.714100
185.397400 -255.977600 126.714100
59.397400 -23.977600 142.714100
3.397400 -15.977600 210.714100
11.397400 58.022400 214.714100
43.397400 40.022400 252.714100
15.397400 -7.977600 140.714100
33.397400 -175.977600 140.714100
131.397400 -171.977600 112.714100
145.397400 -251.977600 152.714100
-48.602600 0.022400 246.714100
209.397400 -27.977600 168.714100
129.397400 -139.977600 106.714100
41.397400 -19.977600 140.714100
149.397400 -211.977600 240.714100
13.397400 -23.977600 138.714100
23.397400 20.022400 260.714100
89.397400 -81.977600 260.714100
19.397400 -191.977600 92.714100
67.397400 -209.977600 160.714100
141.397400 -231.977600 94.714100
143.397400 -221.977600 244.714100
139.397400 -289.977600 134.714100
163.397400 -85.977600 114.714100
45.397400 -75.977600 112.714100
201.397400 -149.977600 134.714100
3.397400 -83.977600 146.714100
165.397400 -261.977600 230.714100
189.397400 -255.977600 202.714100
7.397400 -213.977600 204.714100
115.397400 -97.977600 138.714100
151.397400 -283.977600 104.714100
13.397400 -195.977600 224.714100
147.397400 72.022400 216.714100
45.397400 -139.977600 202.714100
145.397400 -261.977600 246.714100
19.397400 -9.977600 120.714100
115.397400 -251.977600 246.714100
147.397400 -95.977600 106.714100
31.397400 -197.977600 106.714100
141.397400 78.022400 118.714100
171.397400 -197.977600 138.714100
171.397400 -151.977600 208.714100
141.397400 -11.977600 248.714100
185.397400 84.022400 232.714100
143.397400 -61.977600 234.714100
157.397400 4.022400 260.714100
101.397400 18.022400 246.714100
11.397400 -101.977600 130.714100
49.397400 -53.977600 226.714100
37.397400 -61.977600 128.714100
95.397400 -65.977600 144.714100
43.397400 -49.977600 198.714100
115.397400 -33.977600 168.714100
69.397400 -67.977600 252.714100
199.397400 -81.977600 194.714100
209.397400 -57.977600 106.714100
109.397400 -215.977600 158.714100
99.397400 -147.977600 106.714100
121.397400 -245.977600 260.714100
1.397400 -193.977600 148.714100
63.397400 -11.977600 216.714100
27.397400 -19.977600 252.714100
133.397400 -7.977600 214.714100
7.397400 -135.977600 190.714100
45.397400 -13.977600 240.714100
33.397400 -93.977600 188.714100
-44.602600 30.022400 120.714100
-36.602600 24.022400 196.714100
139.397400 -261.977600 108.714100
145.397400 -195.977600 114.714100
-36.602600 -107.977600 244.714100
79.397400 32.022400 246.714100
3.397400 -31.977600 88.714100
147.397400 46.022400 258.714100
57.397400 -265.977600 122.714100
19.397400 -235.977600 104.714100
111.397400 18.022400 128.714100
-6.602600 -133.977600 198.714100
3.397400 -185.977600 244.714100
-4.602600 -231.977600 106.714100
3.397400 -133.977600 250.714100
167.397400 -65.977600 118.714100
153.397400 78.022400 180.714100
191.397400 14.022400 136.714100
59.397400 -63.977600 202.714100
79.397400 -77.977600 192.714100
143.397400 22.022400 110.714100
211.397400 -197.977600 234.714100
117.397400 -115.977600 216.714100
-38.602600 -275.977600 138.714100
67.397400 -95.977600 182.714100
183.397400 -65.977600 166.714100
1.397400 -157.977600 244.714100
79.397400 -269.977600 246.714100
147.397400 -31.977600 112.714100
-42.602600 -257.977600 176.714100
7.397400 -17.977600 116.714100
11.397400 -71.977600 180.714100
195.397400 -253.977600 128.714100
153.397400 -99.977600 230.714100
145.397400 -235.977600 212.714100
-40.602600 -51.977600 104.714100
171.397400 -231.977600 88.714100
89.397400 -215.977600 162.714100
-2.602600 -115.977600 132.714100
189.397400 60.022400 200.714100
65.397400 -15.977600 198.714100
139.397400 -63.977600 192.714100
-12.602600 -187.977600 96.714100
173.397400 -85.977600 256.714100
177.397400 -205.977600 166.714100
169.397400 -79.977600 188.714100
-44.602600 -289.977600 214.714100
53.397400 -175.977600 140.714100
193.397400 -25.977600 160.714100
-10.602600 -209.977600 218.714100
195.397400 30.022400 118.714100
-14.602600 -133.977600 200.714100
-28.602600 -275.977600 208.714100
157.397400 -21.977600 214.714100
195.397400 -265.977600 150.714100
107.397400 4.022400 118.714100
201.397400 80.022400 172.714100
-44.602600 -101.977600 106.714100
153.397400 -161.977600 112.714100
13.397400 -143.977600 256.714100
123.397400 -217.977600 210.714100
67.397400 -71.977600 240.714100
127.397400 -31.977600 222.714100
57.397400 -237.977600 222.714100
55.397400 -27.977600 228.714100
11.397400 -19.977600 260.714100
-26.602600 -185.977600 214.714100
-42.602600 10.022400 206.714100
163.397400 -213.977600 214.714100
-44.602600 -119.977600 198.714100
145.397400 -23.977600 106.714100
183.397400 -153.977600 204.714100
9.397400 -279.977600 166.714100
79.397400 -209.977600 122.714100
205.397400 -59.977600 162.714100
121.397400 -157.977600 166.714100
45.397400 -147.977600 242.714100
-26.602600 50.022400 130.714100
209.397400 -265.977600 160.714100
151.397400 22.022400 226.714100
159.397400 -263.977600 118.714100
-16.602600 -195.977600 134.714100
65.397400 46.022400 160.714100
11.397400 -201.977600 170.714100
33.397400 -249.977600 110.714100
-40.602600 4.022400 258.714100
89.397400 46.022400 216.714100
-28.602600 -289.977600 164.714100
29.397400 10.022400 114.714100
-4.602600 -117.977600 202.714100
15.397400 68.022400 184.714100
-18.602600 -123.977600 90.714100
-0.602600 -5.977600 118.714100
1.397400 -157.977600 134.714100
195.397400 -247.977600 130.714100
175.397400 66.022400 244.714100
169.397400 -173.977600 96.714100
161.397400 30.022400 96.714100
-8.602600 -249.977600 142.714100
191.397400 -157.977600 210.714100
135.397400 -99.977600 136.714100
87.397400 -79.977600 216.714100
165.397400 54.022400 128.714100
45.397400 -63.977600 254.714100
7.397400 -289.977600 216.714100
137.397400 -229.977600 106.714100
131.397400 -185.977600 210.714100
175.397400 -31.977600 146.714100
111.397400 -289.977600 190.714100
-4.602600 -145.977600 228.714100
-18.602600 -237.977600 106.714100
139.397400 4.022400 100.714100
157.397400 -269.977600 106.714100
55.397400 70.022400 250.714100
141.397400 -61.977600 122.714100
-30.602600 44.022400 188.714100
-10.602600 -219.977600 216.714100
-20.602600 -91.977600 132.714100
185.397400 -47.977600 242.714100
-46.602600 18.022400 122.714100
129.397400 22.022400 100.714100
-40.602600 26.022400 108.714100
-50.602600 8.022400 124.714100
29.397400 50.022400 150.714100
185.397400 -171.977600 106.714100
11.397400 -7.977600 188.714100
125.397400 54.022400 176.714100
63.397400 -171.977600 140.714100
57.397400 -201.977600 96.714100
197.397400 -191.977600 98.714100
-18.602600 -101.977600 128.714100
29.397400 14.022400 192.714100
193.397400 -111.977600 234.714100
-12.602600 -285.977600 154.714100
57.397400 78.022400 120.714100
39.397400 -269.977600 190.714100
123.397400 -165.977600 228.714100
63.397400 -177.977600 246.714100
-2.602600 -25.977600 124.714100
97.397400 -113.977600 112.714100
183.397400 -179.977600 122.714100
149.397400 -5.977600 250.714100
-10.602600 -179.977600 184.714100
55.397400 84.022400 202.714100
125.397400 -67.977600 184.714100
125.397400 -249.977600 196.714100
25.397400 -231.977600 198.714100
167.397400 -35.977600 254.714100
-22.602600 16.022400 102.714100
145.397400 -9.977600 168.714100
43.397400 58.022400 156.714100
23.397400 -165.977600 88.714100
103.397400 -81.977600 196.714100
71.397400 -193.977600 252.714100
111.397400 -21.977600 248.714100
-44.602600 78.022400 132.714100
137.397400 -177.977600 212.714100
5.397400 -103.977600 156.714100
-0.602600 -197.977600 244.714100
147.397400 -227.977600 258.714100
-28.602600 -213.977600 140.714100
123.397400 -31.977600 110.714100
101.397400 -181.977600 238.714100
15.397400 64.022400 116.714100
21.397400 -161.977600 190.714100
-26.602600 16.022400 144.714100
37.397400 -119.977600 88.714100
69.397400 -207.977600 158.714100
103.397400 -157.977600 112.714100
7.397400 48.022400 188.714100
145.397400 -81.977600 224.714100
203.397400 -23.977600 112.714100
185.397400 -51.977600 172.714100
55.397400 -269.977600 260.714100
29.397400 6.022400 128.714100
87.397400 -123.977600 206.714100
161.397400 4.022400 196.714100
197.397400 -143.977600 178.714100
71.397400 -185.977600 254.714100
121.397400 -25.977600 112.714100
-4.602600 -23.977600 156.714100
65.397400 -175.977600 156.714100
19.397400 -145.977600 132.714100
